1.619782 -0.184549 3.044835
1.577637 -0.002178 2.998005
1.542935 -0.011123 3.009525
1.510997 -0.026879 3.021716
1.483048 -0.048838 3.03411
1.460164 -0.076158 3.046229
1.443223 -0.107788 3.057608
1.432877 -0.142512 3.067811
1.429523 -0.178997 3.076444
1.43329 -0.21584 3.083176
1.444033 -0.251626 3.087748
1.46134 -0.284979 3.089985
1.484545 -0.314617 3.089801
1.512757 -0.339401 3.087203
1.544891 -0.35838 3.08229
1.579713 -0.370823 3.075251
1.615884 -0.376252 3.066358
1.652015 -0.37446 3.05595
1.686716 -0.365514 3.04443
1.718655 -0.349758 3.032239
1.746603 -0.327799 3.019846
1.769488 -0.300479 3.007726
1.786428 -0.26885 2.996347
1.796775 -0.234125 2.986145
1.800129 -0.19764 2.977512
1.796362 -0.160797 2.97078
1.785618 -0.125011 2.966207
1.768311 -0.091659 2.96397
1.745106 -0.062021 2.964154
1.716894 -0.037236 2.966753
1.68476 -0.018258 2.971666
1.649938 -0.005815 2.978704
1.613767 -0.000385 2.987598
1.542923 0.177606 2.973913
1.474854 0.160058 2.996511
1.412204 0.129152 3.020425
1.357381 0.086077 3.044735
1.312492 0.032488 3.068508
1.279261 -0.029556 3.090829
1.258966 -0.097671 3.110842
1.252387 -0.169239 3.127776
1.259776 -0.241509 3.140982
1.28085 -0.311705 3.149951
1.314799 -0.377128 3.15434
1.360317 -0.435266 3.153978
1.415657 -0.483882 3.148881
1.478691 -0.52111 3.139244
1.546996 -0.545518 3.125437
1.617948 -0.556168 3.107992
1.688821 -0.552652 3.087578
1.75689 -0.535104 3.06498
1.81954 -0.504199 3.041066
1.874362 -0.461124 3.016756
1.919252 -0.407534 2.992983
1.952482 -0.34549 2.970662
1.972777 -0.277375 2.950649
1.979356 -0.205808 2.933715
1.971967 -0.133537 2.920509
1.950893 -0.063341 2.91154
1.916944 0.002082 2.907152
1.871426 0.060219 2.907513
1.816086 0.108836 2.91261
1.753052 0.146063 2.922247
1.684747 0.170471 2.936054
1.613795 0.181122 2.953499
1.486128 0.324431 2.862355
1.387308 0.298956 2.895163
1.296354 0.254088 2.92988
1.216763 0.191553 2.965173
1.151594 0.113754 2.999686
1.103351 0.023679 3.032091
1.073887 -0.075208 3.061145
1.064336 -0.179108 3.08573
1.075063 -0.284029 3.104902
1.105658 -0.385937 3.117923
1.154943 -0.480917 3.124294
1.221026 -0.565319 3.123769
1.301367 -0.6359 3.116369
1.392877 -0.689946 3.102378
1.492042 -0.725381 3.082335
1.595048 -0.740843 3.057007
1.697939 -0.735738 3.027371
1.79676 -0.710263 2.994563
1.887714 -0.665395 2.959846
1.967304 -0.60286 2.924553
2.032474 -0.52506 2.89004
2.080717 -0.434986 2.857635
2.11018 -0.336098 2.828581
2.119731 -0.232198 2.803996
2.109004 -0.127278 2.784825
2.078409 -0.025369 2.771803
2.029123 0.069611 2.765432
1.96304 0.154013 2.765957
1.8827 0.224593 2.773357
1.791189 0.278639 2.787348
1.692025 0.314074 2.807392
1.589018 0.329536 2.832719
1.425161 0.444618 2.724272
1.299386 0.412193 2.766028
1.183624 0.355088 2.810215
1.082325 0.275496 2.855134
0.99938 0.176476 2.899061
0.937978 0.061833 2.940305
0.900478 -0.064027 2.977284
0.888321 -0.196267 3.008574
0.901975 -0.329805 3.032975
0.940914 -0.45951 3.049548
1.003643 -0.580397 3.057657
1.08775 -0.687821 3.056989
1.190004 -0.777652 3.047571
1.306475 -0.84644 3.029764
1.432687 -0.89154 3.004252
1.56379 -0.91122 2.972017
1.694745 -0.904723 2.934297
1.820521 -0.872298 2.892541
1.936282 -0.815193 2.848355
2.037582 -0.7356 2.803435
2.120527 -0.63658 2.759509
2.181929 -0.521937 2.718264
2.219429 -0.396078 2.681286
2.231585 -0.263838 2.649995
2.217931 -0.130299 2.625594
2.178992 -0.000594 2.609021
2.116263 0.120293 2.600913
2.032155 0.227716 2.601581
1.929901 0.317548 2.610999
1.81343 0.386335 2.628806
1.687218 0.431435 2.654317
1.556115 0.451115 2.686553
1.362365 0.533545 2.56497
1.214468 0.495418 2.61407
1.078347 0.428269 2.666028
0.959231 0.334679 2.718848
0.861698 0.218244 2.7705
0.789497 0.083438 2.818999
0.745402 -0.064557 2.86248
0.731107 -0.220055 2.899274
0.747162 -0.37708 2.927967
0.79295 -0.529597 2.947454
0.866711 -0.671745 2.956989
0.965611 -0.798061 2.956204
1.085849 -0.903692 2.945129
1.222805 -0.984578 2.924191
1.371214 -1.03761 2.894192
1.525375 -1.060751 2.856288
1.679362 -1.053111 2.811934
1.827258 -1.014984 2.762834
1.963379 -0.947835 2.710876
2.082495 -0.854244 2.658056
2.180027 -0.737809 2.606404
2.252229 -0.603003 2.557906
2.296324 -0.455008 2.514424
2.310619 -0.29951 2.47763
2.294563 -0.142485 2.448937
2.248775 0.010031 2.42945
2.175014 0.152179 2.419915
2.076114 0.278496 2.420701
1.955875 0.384127 2.431775
1.81892 0.465012 2.452714
1.67051 0.518044 2.482712
1.51635 0.541185 2.520617
1.300151 0.587797 2.390572
1.135818 0.545432 2.445129
0.984568 0.470821 2.502861
0.852214 0.366829 2.561552
0.743841 0.237453 2.618944
0.663615 0.087665 2.672833
0.614619 -0.076779 2.721147
0.598735 -0.249559 2.762031
0.616575 -0.424035 2.793912
0.667452 -0.593503 2.815566
0.749411 -0.751449 2.82616
0.859302 -0.891805 2.825287
0.992904 -1.009176 2.812982
1.14508 -1.099051 2.789716
1.309984 -1.157977 2.756384
1.481278 -1.18369 2.714267
1.65238 -1.175201 2.664983
1.816713 -1.132836 2.610426
1.967963 -1.058224 2.552693
2.100317 -0.954232 2.494003
2.20869 -0.824856 2.436611
2.288915 -0.675068 2.382722
2.337911 -0.510624 2.334407
2.353795 -0.337844 2.293524
2.335955 -0.163368 2.261643
2.285078 0.0061 2.239989
2.203119 0.164046 2.229395
2.093227 0.304401 2.230268
1.959625 0.421772 2.242573
1.807449 0.511647 2.265839
1.642545 0.570573 2.299171
1.471251 0.596286 2.341289
1.240912 0.605288 2.207779
1.066457 0.560314 2.265696
0.905891 0.481106 2.326984
0.765384 0.370709 2.38929
0.650336 0.233364 2.450217
0.565169 0.07435 2.507425
0.513155 -0.100222 2.558716
0.496293 -0.283644 2.602117
0.515231 -0.468867 2.635962
0.569242 -0.648773 2.658949
0.656249 -0.816448 2.670196
0.77291 -0.965449 2.66927
0.91474 -1.090049 2.656206
1.07629 -1.18546 2.631507
1.251351 -1.248016 2.596123
1.433196 -1.275313 2.551411
1.614836 -1.266301 2.499092
1.789291 -1.221327 2.441175
1.949857 -1.142119 2.379886
2.090364 -1.031721 2.31758
2.205411 -0.894377 2.256653
2.290579 -0.735362 2.199445
2.342592 -0.56079 2.148155
2.359454 -0.377368 2.104753
2.340516 -0.192145 2.070909
2.286505 -0.012239 2.047921
2.199497 0.155436 2.036674
2.082837 0.304437 2.037601
1.941006 0.429037 2.050664
1.779456 0.524448 2.075363
1.604395 0.587003 2.110748
1.42255 0.6143 2.15546
1.186924 0.585346 2.023615
1.009051 0.539491 2.082667
0.845339 0.458731 2.145156
0.70208 0.346171 2.208682
0.584778 0.206136 2.270803
0.497942 0.044006 2.329132
0.444909 -0.133986 2.381427
0.427717 -0.321002 2.425679
0.447026 -0.509853 2.460187
0.502095 -0.693284 2.483625
0.590807 -0.864244 2.495092
0.709753 -1.016164 2.494148
0.854362 -1.143205 2.480828
1.019077 -1.240485 2.455645
1.197567 -1.304267 2.419567
1.382975 -1.332098 2.37398
1.568173 -1.32291 2.320635
1.746046 -1.277054 2.261584
1.909758 -1.196295 2.199094
2.053018 -1.083735 2.135568
2.170319 -0.943699 2.073447
2.257155 -0.781569 2.015118
2.310187 -0.603577 1.962823
2.327379 -0.416561 1.918571
2.30807 -0.227709 1.884063
2.253001 -0.044279 1.860626
2.164289 0.126681 1.849159
2.045343 0.278601 1.850103
1.900733 0.405642 1.863423
1.736019 0.502922 1.888606
1.557528 0.566703 1.924684
1.372121 0.594534 1.970271
1.140262 0.528737 1.845159
0.965806 0.483763 1.903076
0.80524 0.404556 1.964365
0.664733 0.294158 2.02667
0.549686 0.156813 2.087597
0.464518 -0.002201 2.144805
0.412504 -0.176773 2.196096
0.395642 -0.360195 2.239497
0.414581 -0.545418 2.273342
0.468591 -0.725324 2.29633
0.555599 -0.892999 2.307576
0.672259 -1.042 2.30665
0.814089 -1.1666 2.293587
0.975639 -1.262011 2.268888
1.1507 -1.324567 2.233503
1.332545 -1.351864 2.188791
1.514185 -1.342852 2.136472
1.68864 -1.297878 2.078555
1.849207 -1.21867 2.017266
1.989713 -1.108272 1.954961
2.104761 -0.970927 1.894033
2.189928 -0.811913 1.836825
2.241942 -0.637341 1.785535
2.258803 -0.453918 1.742133
2.239865 -0.268695 1.708289
2.185854 -0.08879 1.685301
2.098846 0.078885 1.674055
1.982186 0.227886 1.674981
1.840355 0.352486 1.688045
1.678805 0.447897 1.712744
1.503744 0.510453 1.748129
1.3219 0.537749 1.79284
1.102718 0.437637 1.679268
0.938384 0.395273 1.733824
0.787134 0.320661 1.791557
0.65478 0.216669 1.850247
0.546407 0.087293 1.90764
0.466182 -0.062495 1.961529
0.417185 -0.226939 2.009843
0.401302 -0.399719 2.050726
0.419141 -0.574195 2.082608
0.470018 -0.743663 2.104261
0.551977 -0.901609 2.114856
0.661869 -1.041965 2.113983
0.79547 -1.159335 2.101677
0.947647 -1.249211 2.078412
1.112551 -1.308137 2.04508
1.283845 -1.33385 2.002962
1.454946 -1.325361 1.953678
1.619279 -1.282996 1.899122
1.770529 -1.208384 1.841389
1.902884 -1.104392 1.782699
2.011256 -0.975016 1.725307
2.091482 -0.825228 1.671418
2.140478 -0.660784 1.623103
2.156361 -0.488004 1.58222
2.138522 -0.313528 1.550339
2.087645 -0.14406 1.528685
2.005685 0.013886 1.518091
1.895793 0.154242 1.518964
1.762192 0.271612 1.531269
1.610015 0.361488 1.554535
1.445111 0.420414 1.587867
1.273817 0.446126 1.629985
1.075735 0.315547 1.532317
0.927839 0.27742 1.581416
0.791718 0.210271 1.633375
0.672602 0.116681 1.686194
0.575069 0.000246 1.737846
0.502868 -0.13456 1.786345
0.458773 -0.282555 1.829827
0.444478 -0.438053 1.866621
0.460533 -0.595078 1.895313
0.506321 -0.747595 1.914801
0.580082 -0.889743 1.924335
0.678982 -1.016059 1.92355
0.79922 -1.12169 1.912475
0.936175 -1.202576 1.891537
1.084585 -1.255608 1.861539
1.238745 -1.278749 1.823634
1.392733 -1.271109 1.77928
1.540629 -1.232982 1.73018
1.67675 -1.165833 1.678222
1.795866 -1.072242 1.625402
1.893399 -0.955807 1.57375
1.9656 -0.821001 1.525252
2.009695 -0.673006 1.48177
2.02399 -0.517508 1.444976
2.007934 -0.360483 1.416284
1.962146 -0.207967 1.396796
1.888385 -0.065819 1.387262
1.789485 0.060498 1.388047
1.669246 0.166129 1.399122
1.532291 0.247014 1.42006
1.383881 0.300046 1.450058
1.229721 0.323187 1.487963
1.060352 0.167159 1.409953
0.934577 0.134734 1.451709
0.818815 0.077629 1.495896
0.717515 -0.001963 1.540815
0.63457 -0.100983 1.584742
0.573168 -0.215626 1.625986
0.535668 -0.341486 1.662965
0.523511 -0.473726 1.694255
0.537165 -0.607264 1.718656
0.576104 -0.736969 1.735229
0.638833 -0.857856 1.743338
0.722941 -0.965279 1.74267
0.825195 -1.055111 1.733252
0.941666 -1.123899 1.715445
1.067878 -1.168999 1.689934
1.19898 -1.188679 1.657698
1.329936 -1.182181 1.619978
1.455711 -1.149757 1.578222
1.571473 -1.092651 1.534036
1.672772 -1.013059 1.489116
1.755717 -0.914039 1.44519
1.817119 -0.799396 1.403945
1.854619 -0.673536 1.366967
1.866776 -0.541296 1.335676
1.853122 -0.407758 1.311275
1.814182 -0.278053 1.294702
1.751453 -0.157166 1.286594
1.667346 -0.049743 1.287262
1.565091 0.040089 1.29668
1.44862 0.108876 1.314487
1.322408 0.153976 1.339998
1.191306 0.173656 1.372234
1.057158 -0.001826 1.31688
0.958337 -0.027301 1.349687
0.867383 -0.072169 1.384404
0.787793 -0.134704 1.419697
0.722623 -0.212503 1.45421
0.67438 -0.302578 1.486616
0.644916 -0.401465 1.515669
0.635365 -0.505365 1.540254
0.646093 -0.610286 1.559426
0.676687 -0.712194 1.572447
0.725973 -0.807175 1.578818
0.792056 -0.891577 1.578294
0.872396 -0.962157 1.570894
0.963907 -1.016203 1.556903
1.063071 -1.051638 1.536859
1.166078 -1.0671 1.511532
1.268968 -1.061995 1.481895
1.367789 -1.03652 1.449088
1.458743 -0.991652 1.414371
1.538333 -0.929117 1.379077
1.603503 -0.851317 1.344565
1.651746 -0.761243 1.312159
1.681209 -0.662356 1.283105
1.690761 -0.558455 1.25852
1.680033 -0.453535 1.239349
1.649438 -0.351626 1.226328
1.600152 -0.256646 1.219957
1.53407 -0.172244 1.220482
1.453729 -0.101664 1.227882
1.362218 -0.047618 1.241872
1.263054 -0.012183 1.261917
1.160048 0.003279 1.287243
1.066276 -0.184912 1.256673
0.998207 -0.20246 1.279271
0.935557 -0.233365 1.303185
0.880734 -0.27644 1.327495
0.835845 -0.330029 1.351267
0.802614 -0.392074 1.373589
0.782319 -0.460188 1.393601
0.77574 -0.531756 1.410536
0.78313 -0.604026 1.423741
0.804204 -0.674222 1.432711
0.838152 -0.739646 1.437099
0.883671 -0.797783 1.436738
0.93901 -0.846399 1.43164
1.002044 -0.883627 1.422003
1.070349 -0.908035 1.408197
1.141301 -0.918686 1.390751
1.212174 -0.915169 1.370337
1.280243 -0.897621 1.347739
1.342893 -0.866716 1.323825
1.397716 -0.823641 1.299515
1.442605 -0.770052 1.275743
1.475836 -0.708008 1.253421
1.49613 -0.639893 1.233409
1.502709 -0.568325 1.216474
1.49532 -0.496055 1.203269
1.474246 -0.425859 1.194299
1.440297 -0.360435 1.189911
1.394779 -0.302298 1.190273
1.339439 -0.253682 1.19537
1.276405 -0.216454 1.205007
1.2081 -0.192046 1.218813
1.137148 -0.181396 1.236259
1.087357 -0.375064 1.231646
1.052655 -0.38401 1.243166
1.020717 -0.399766 1.255358
0.992768 -0.421725 1.267751
0.969884 -0.449045 1.27987
0.952943 -0.480674 1.291249
0.942597 -0.515399 1.301452
0.939243 -0.551884 1.310085
0.94301 -0.588727 1.316817
0.953753 -0.624512 1.321389
0.97106 -0.657865 1.323627
0.994265 -0.687503 1.323442
1.022477 -0.712288 1.320844
1.054611 -0.731266 1.315931
1.089433 -0.743709 1.308892
1.125604 -0.749139 1.299999
1.161735 -0.747346 1.289592
1.196436 -0.7384 1.278071
1.228374 -0.722645 1.26588
1.256323 -0.700685 1.253487
1.279207 -0.673366 1.241368
1.296148 -0.641736 1.229988
1.306494 -0.607011 1.219786
1.309848 -0.570527 1.211153
1.306081 -0.533683 1.204421
1.295338 -0.497898 1.199848
1.278031 -0.464545 1.197611
1.254826 -0.434907 1.197796
1.226614 -0.410123 1.200394
1.194479 -0.391145 1.205307
1.159658 -0.378701 1.212346
1.123487 -0.373272 1.221239
1.119589 -0.564975 1.242761
1.553507 0.07841 2.959525
1.502794 0.065336 2.976361
1.456119 0.042311 2.994178
1.415274 0.010219 3.01229
1.38183 -0.029706 3.030001
1.357073 -0.07593 3.046631
1.341953 -0.126677 3.061541
1.337051 -0.179997 3.074157
1.342556 -0.23384 3.083996
1.358257 -0.286138 3.090678
1.383549 -0.33488 3.093947
1.417462 -0.378194 3.093678
1.458691 -0.414414 3.08988
1.505653 -0.44215 3.082701
1.556542 -0.460334 3.072414
1.609403 -0.468269 3.059417
1.662205 -0.465649 3.044208
1.712918 -0.452576 3.027372
1.759593 -0.42955 3.009556
1.800438 -0.397459 2.991444
1.833881 -0.357533 2.973733
1.858639 -0.311309 2.957103
1.873759 -0.260562 2.942193
1.878661 -0.207242 2.929576
1.873155 -0.153399 2.919738
1.857455 -0.101101 2.913056
1.832162 -0.052359 2.909786
1.798249 -0.009046 2.910056
1.75702 0.027175 2.913853
1.710059 0.05491 2.921033
1.65917 0.073095 2.931319
1.606308 0.08103 2.944316
-0.899894 -0.214755 3.04936
-0.931206 -0.029437 3.00571
-0.894968 -0.029535 2.995526
-0.859113 -0.036873 2.986722
-0.825019 -0.051168 2.979635
-0.793997 -0.07187 2.974537
-0.767239 -0.098184 2.971625
-0.745773 -0.1291 2.971011
-0.730424 -0.163428 2.972718
-0.721781 -0.199849 2.97668
-0.720178 -0.236965 2.982746
-0.725675 -0.273348 2.990681
-0.738061 -0.307601 3.000182
-0.756861 -0.338407 3.010883
-0.781351 -0.364581 3.022373
-0.810592 -0.38512 3.03421
-0.843458 -0.399232 3.045939
-0.878687 -0.406376 3.05711
-0.914925 -0.406278 3.067294
-0.95078 -0.39894 3.076098
-0.984874 -0.384645 3.083185
-1.015896 -0.363943 3.088283
-1.042654 -0.337629 3.091195
-1.06412 -0.306713 3.091809
-1.079469 -0.272385 3.090102
-1.088112 -0.235964 3.08614
-1.089715 -0.198848 3.080075
-1.084218 -0.162465 3.072139
-1.071832 -0.128212 3.062638
-1.053032 -0.097406 3.051937
-1.028541 -0.071232 3.040447
-0.999301 -0.050693 3.02861
-0.966435 -0.036581 3.016881
-0.95539 0.152455 2.984785
-0.884306 0.152262 2.964809
-0.813974 0.137869 2.947538
-0.747098 0.109829 2.933637
-0.686246 0.06922 2.923638
-0.633758 0.017602 2.917926
-0.59165 -0.04304 2.916721
-0.561542 -0.110377 2.920069
-0.544589 -0.181821 2.927841
-0.541443 -0.254626 2.939739
-0.552226 -0.325994 2.955305
-0.576523 -0.393183 2.973942
-0.6134 -0.453611 2.994932
-0.66144 -0.504955 3.01747
-0.718797 -0.545242 3.040689
-0.783266 -0.572925 3.063697
-0.852371 -0.586938 3.08561
-0.923455 -0.586745 3.105586
-0.993787 -0.572352 3.122857
-1.060663 -0.544312 3.136759
-1.121515 -0.503703 3.146758
-1.174003 -0.452085 3.152469
-1.216111 -0.391442 3.153674
-1.246219 -0.324105 3.150326
-1.263172 -0.252662 3.142554
-1.266317 -0.179857 3.130656
-1.255534 -0.108489 3.11509
-1.231237 -0.0413 3.096453
-1.19436 0.019128 3.075463
-1.14632 0.070472 3.052925
-1.088963 0.110759 3.029706
-1.024494 0.138442 3.006697
-1.002962 0.304317 2.875682
-0.899763 0.304036 2.846682
-0.797658 0.283141 2.821609
-0.700568 0.242433 2.801426
-0.612225 0.183478 2.78691
-0.536024 0.108541 2.778618
-0.474893 0.020502 2.776868
-0.431182 -0.077256 2.781728
-0.40657 -0.180977 2.793012
-0.402004 -0.286673 2.810285
-0.417658 -0.390284 2.832884
-0.452932 -0.487827 2.85994
-0.506469 -0.575554 2.890414
-0.576212 -0.650094 2.923133
-0.659481 -0.708582 2.956842
-0.753076 -0.748771 2.990245
-0.853401 -0.769116 3.022058
-0.956599 -0.768835 3.051058
-1.058705 -0.747939 3.076131
-1.155795 -0.707231 3.096313
-1.244138 -0.648276 3.11083
-1.320338 -0.573339 3.119122
-1.381469 -0.4853 3.120872
-1.42518 -0.387541 3.116011
-1.449791 -0.283821 3.104727
-1.454358 -0.178125 3.087454
-1.438703 -0.074514 3.064856
-1.40343 0.023029 3.037799
-1.349892 0.110756 3.007326
-1.280149 0.185296 2.974606
-1.19688 0.243784 2.940897
-1.103285 0.283973 2.907494
-1.056062 0.430313 2.739542
-0.924715 0.429955 2.702631
-0.794759 0.40336 2.670719
-0.671187 0.351549 2.645032
-0.558748 0.276513 2.626556
-0.461762 0.181137 2.616002
-0.383958 0.069084 2.613775
-0.328324 -0.055339 2.619962
-0.297 -0.187349 2.634323
-0.291188 -0.321875 2.656307
-0.311112 -0.453747 2.68507
-0.356007 -0.577896 2.719506
-0.424146 -0.689551 2.758291
-0.512913 -0.784423 2.799936
-0.618894 -0.858864 2.84284
-0.738018 -0.910014 2.885353
-0.865707 -0.935909 2.925843
-0.997053 -0.935551 2.962753
-1.127009 -0.908956 2.994665
-1.250581 -0.857145 3.020352
-1.363021 -0.782109 3.038828
-1.460006 -0.686732 3.049382
-1.53781 -0.574679 3.051609
-1.593444 -0.450256 3.045423
-1.624768 -0.318246 3.031061
-1.63058 -0.18372 3.009077
-1.610655 -0.051849 2.980314
-1.565761 0.0723 2.945878
-1.497621 0.183956 2.907093
-1.408854 0.278827 2.865448
-1.302873 0.353268 2.822544
-1.183749 0.404419 2.780031
-1.11265 0.525599 2.581596
-0.958203 0.525179 2.538194
-0.805391 0.493906 2.500669
-0.660085 0.432983 2.470464
-0.527871 0.34475 2.448739
-0.413828 0.232599 2.436329
-0.322339 0.100839 2.433711
-0.256921 -0.045466 2.440985
-0.220087 -0.200695 2.457872
-0.213253 -0.35888 2.483723
-0.236682 -0.513945 2.517544
-0.289472 -0.659928 2.558036
-0.369596 -0.791221 2.603643
-0.473974 -0.902778 2.652612
-0.598595 -0.990312 2.703062
-0.73867 -1.050459 2.753052
-0.888816 -1.080907 2.800663
-1.043263 -1.080487 2.844065
-1.196075 -1.049214 2.881589
-1.341381 -0.98829 2.911794
-1.473595 -0.900058 2.93352
-1.587638 -0.787906 2.94593
-1.679126 -0.656146 2.948548
-1.744544 -0.509841 2.941274
-1.781378 -0.354612 2.924387
-1.788212 -0.196427 2.898536
-1.764783 -0.041362 2.864714
-1.711992 0.104621 2.824222
-1.631868 0.235914 2.778615
-1.52749 0.347471 2.729646
-1.402869 0.435005 2.679197
-1.262794 0.495151 2.629206
-1.170551 0.586515 2.407914
-0.998939 0.586048 2.359689
-0.829143 0.5513 2.317994
-0.667689 0.483606 2.284432
-0.52078 0.385567 2.260292
-0.394062 0.260951 2.246503
-0.292405 0.114547 2.243593
-0.219717 -0.048019 2.251676
-0.178789 -0.220499 2.270439
-0.171196 -0.396266 2.299164
-0.197228 -0.568564 2.336744
-0.255885 -0.730772 2.381737
-0.344914 -0.876657 2.432412
-0.460893 -1.000613 2.486824
-0.599364 -1.097875 2.54288
-0.755007 -1.164707 2.598427
-0.921841 -1.198539 2.651329
-1.093453 -1.198072 2.699554
-1.263249 -1.163323 2.741249
-1.424704 -1.095629 2.774812
-1.571613 -0.99759 2.798951
-1.69833 -0.872974 2.812741
-1.799986 -0.72657 2.81565
-1.872675 -0.564004 2.807567
-1.913602 -0.391523 2.788803
-1.921195 -0.215757 2.760079
-1.895163 -0.043459 2.722499
-1.836505 0.11875 2.677506
-1.747476 0.264634 2.62683
-1.631497 0.38859 2.572419
-1.493026 0.485852 2.516363
-1.337383 0.552683 2.460816
-1.227541 0.610719 2.225172
-1.045359 0.610224 2.173976
-0.865104 0.573335 2.129713
-0.693705 0.501471 2.094083
-0.537747 0.397394 2.068457
-0.403224 0.265102 2.053818
-0.295307 0.109681 2.050729
-0.218141 -0.062898 2.059309
-0.174692 -0.246002 2.079229
-0.166631 -0.432595 2.109722
-0.194267 -0.615506 2.149618
-0.256537 -0.787705 2.197381
-0.35105 -0.942576 2.251179
-0.474172 -1.074167 2.308941
-0.621172 -1.17742 2.36845
-0.786402 -1.248368 2.427418
-0.963511 -1.284284 2.483579
-1.145694 -1.283788 2.534775
-1.325948 -1.246899 2.579038
-1.497348 -1.175035 2.614668
-1.653306 -1.070957 2.640294
-1.787828 -0.938666 2.654933
-1.895746 -0.783244 2.658021
-1.972911 -0.610665 2.649441
-2.01636 -0.427561 2.629521
-2.024421 -0.240968 2.599028
-1.996785 -0.058057 2.559133
-1.934514 0.114142 2.511369
-1.840001 0.269013 2.457572
-1.716879 0.400603 2.399809
-1.569878 0.503856 2.3403
-1.404648 0.574804 2.281332
-1.281429 0.597282 2.04039
-1.095678 0.596777 1.988192
-0.911892 0.559166 1.943061
-0.737135 0.485894 1.906734
-0.578121 0.379777 1.880605
-0.440963 0.244894 1.86568
-0.330931 0.086428 1.86253
-0.252253 -0.089532 1.871279
-0.207954 -0.276224 1.891589
-0.199735 -0.466472 1.922679
-0.227912 -0.652966 1.963356
-0.291402 -0.828539 2.012056
-0.387766 -0.986444 2.066907
-0.513301 -1.120613 2.125801
-0.663181 -1.225889 2.186476
-0.831648 -1.298227 2.246599
-1.012227 -1.334846 2.303861
-1.197978 -1.334341 2.356059
-1.381764 -1.296729 2.40119
-1.556522 -1.223457 2.437517
-1.715535 -1.117341 2.463646
-1.852693 -0.982457 2.478571
-1.962725 -0.823991 2.48172
-2.041402 -0.648031 2.472972
-2.085702 -0.461339 2.452662
-2.093921 -0.271091 2.421571
-2.065743 -0.084597 2.380894
-2.002253 0.090976 2.332195
-1.905888 0.248881 2.277344
-1.780354 0.383049 2.218449
-1.630473 0.488325 2.157774
-1.462006 0.560663 2.097651
-1.330145 0.54672 1.860672
-1.147962 0.546224 1.809476
-0.967708 0.509335 1.765213
-0.796309 0.437472 1.729584
-0.640351 0.333394 1.703957
-0.505828 0.201103 1.689318
-0.39791 0.045681 1.686229
-0.320744 -0.126898 1.69481
-0.277296 -0.310002 1.714729
-0.269235 -0.496595 1.745223
-0.29687 -0.679506 1.785118
-0.359141 -0.851705 1.832882
-0.453653 -1.006576 1.886679
-0.576775 -1.138166 1.944442
-0.723776 -1.24142 2.003951
-0.889006 -1.312367 2.062918
-1.066115 -1.348284 2.11908
-1.248297 -1.347788 2.170275
-1.428552 -1.310899 2.214538
-1.599952 -1.239035 2.250168
-1.755909 -1.134957 2.275794
-1.890432 -1.002666 2.290433
-1.998349 -0.847244 2.293522
-2.075515 -0.674665 2.284941
-2.118963 -0.491561 2.265022
-2.127024 -0.304968 2.234528
-2.099389 -0.122057 2.194633
-2.037118 0.050142 2.146869
-1.942605 0.205013 2.093072
-1.819483 0.336603 2.035309
-1.672482 0.439856 1.9758
-1.507252 0.510804 1.916832
-1.371815 0.460975 1.692922
-1.200204 0.460508 1.644697
-1.030407 0.42576 1.603002
-0.868953 0.358065 1.56944
-0.722044 0.260027 1.5453
-0.595326 0.135411 1.53151
-0.49367 -0.010993 1.528601
-0.420981 -0.173559 1.536683
-0.380053 -0.346039 1.555447
-0.37246 -0.521806 1.584171
-0.398492 -0.694104 1.621752
-0.45715 -0.856313 1.666744
-0.546178 -1.002198 1.71742
-0.662157 -1.126153 1.771832
-0.800629 -1.223416 1.827888
-0.956272 -1.290247 1.883434
-1.123105 -1.324079 1.936337
-1.294717 -1.323612 1.984562
-1.464513 -1.288864 2.026257
-1.625968 -1.221169 2.059819
-1.772877 -1.12313 2.083959
-1.899594 -0.998514 2.097748
-2.00125 -0.85211 2.100658
-2.073939 -0.689544 2.092575
-2.114866 -0.517064 2.073811
-2.12246 -0.341297 2.045087
-2.096427 -0.168999 2.007507
-2.037769 -0.006791 1.962514
-1.94874 0.139094 1.911838
-1.832762 0.26305 1.857427
-1.69429 0.360312 1.801371
-1.538647 0.427143 1.745824
-1.40484 0.343343 1.543588
-1.250393 0.342923 1.500186
-1.097581 0.31165 1.462662
-0.952276 0.250727 1.432456
-0.820061 0.162494 1.410731
-0.706018 0.050343 1.398321
-0.61453 -0.081417 1.395703
-0.549112 -0.227723 1.402977
-0.512278 -0.382951 1.419864
-0.505444 -0.541137 1.445715
-0.528872 -0.696201 1.479536
-0.581663 -0.842184 1.520028
-0.661786 -0.973478 1.565635
-0.766164 -1.085035 1.614604
-0.890785 -1.172568 1.665054
-1.03086 -1.232715 1.715044
-1.181006 -1.263163 1.762655
-1.335453 -1.262743 1.806057
-1.488266 -1.23147 1.843581
-1.633571 -1.170547 1.873786
-1.765786 -1.082314 1.895512
-1.879828 -0.970162 1.907922
-1.971317 -0.838402 1.91054
-2.036735 -0.692097 1.903266
-2.073568 -0.536868 1.886379
-2.080402 -0.378683 1.860528
-2.056973 -0.223619 1.826706
-2.004183 -0.077635 1.786214
-1.924059 0.053658 1.740607
-1.819681 0.165215 1.691638
-1.695059 0.252749 1.641189
-1.554984 0.312895 1.591198
-1.427949 0.198344 1.418408
-1.296603 0.197987 1.381498
-1.166647 0.171392 1.349586
-1.043075 0.119581 1.323898
-0.930636 0.044545 1.305423
-0.83365 -0.050832 1.294869
-0.755846 -0.162884 1.292642
-0.700212 -0.287307 1.298828
-0.668887 -0.419318 1.313189
-0.663076 -0.553843 1.335174
-0.683 -0.685715 1.363936
-0.727894 -0.809864 1.398372
-0.796034 -0.921519 1.437158
-0.8848 -1.016391 1.478803
-0.990782 -1.090832 1.521706
-1.109906 -1.141983 1.56422
-1.237594 -1.167877 1.604709
-1.368941 -1.167519 1.641619
-1.498897 -1.140924 1.673531
-1.622469 -1.089113 1.699219
-1.734908 -1.014077 1.717695
-1.831894 -0.9187 1.728248
-1.909698 -0.806647 1.730475
-1.965331 -0.682225 1.724289
-1.996656 -0.550214 1.709928
-2.002467 -0.415688 1.687943
-1.982543 -0.283817 1.65918
-1.937648 -0.159668 1.624745
-1.869509 -0.048012 1.585959
-1.780742 0.046859 1.544314
-1.674761 0.1213 1.501411
-1.555637 0.172451 1.458897
-1.440255 0.031552 1.322193
-1.337057 0.031271 1.293193
-1.234951 0.010375 1.26812
-1.137861 -0.030332 1.247937
-1.049518 -0.089288 1.233421
-0.973317 -0.164225 1.225129
-0.912187 -0.252264 1.223379
-0.868476 -0.350022 1.22824
-0.843864 -0.453742 1.239523
-0.839298 -0.559439 1.256796
-0.854952 -0.663049 1.279395
-0.890226 -0.760592 1.306451
-0.943763 -0.84832 1.336925
-1.013506 -0.92286 1.369645
-1.096775 -0.981348 1.403354
-1.19037 -1.021537 1.436756
-1.290694 -1.041881 1.468569
-1.393893 -1.0416 1.497569
-1.495998 -1.020705 1.522642
-1.593088 -0.979997 1.542825
-1.681431 -0.921042 1.557341
-1.757632 -0.846104 1.565633
-1.818763 -0.758065 1.567383
-1.862473 -0.660307 1.562522
-1.887085 -0.556587 1.551239
-1.891651 -0.45089 1.533966
-1.875997 -0.34728 1.511367
-1.840723 -0.249737 1.484311
-1.787186 -0.16201 1.453837
-1.717443 -0.08747 1.421117
-1.634174 -0.028982 1.387408
-1.540578 0.011207 1.354005
-1.441285 -0.150626 1.25864
-1.370201 -0.150819 1.238665
-1.299869 -0.165213 1.221394
-1.232992 -0.193252 1.207492
-1.172141 -0.233861 1.197493
-1.119653 -0.285479 1.191782
-1.077545 -0.346121 1.190576
-1.047437 -0.413458 1.193924
-1.030484 -0.484902 1.201697
-1.027339 -0.557707 1.213594
-1.038121 -0.629075 1.229161
-1.062418 -0.696264 1.247797
-1.099295 -0.756692 1.268788
-1.147335 -0.808036 1.291326
-1.204692 -0.848323 1.314545
-1.269161 -0.876005 1.337553
-1.338266 -0.890019 1.359466
-1.40935 -0.889826 1.379442
-1.479681 -0.875432 1.396712
-1.546558 -0.847392 1.410614
-1.60741 -0.806783 1.420613
-1.659898 -0.755166 1.426325
-1.702005 -0.694523 1.42753
-1.732114 -0.627186 1.424182
-1.749066 -0.555743 1.41641
-1.752212 -0.482938 1.404512
-1.741429 -0.41157 1.388946
-1.717132 -0.344381 1.370309
-1.680255 -0.283953 1.349318
-1.632215 -0.232609 1.32678
-1.574858 -0.192322 1.303561
-1.510389 -0.16464 1.280553
-1.430999 -0.341187 1.230193
-1.39476 -0.341286 1.220009
-1.358906 -0.348623 1.211205
-1.324812 -0.362918 1.204118
-1.29379 -0.38362 1.19902
-1.267032 -0.409934 1.196108
-1.245566 -0.44085 1.195494
-1.230217 -0.475178 1.197201
-1.221574 -0.511599 1.201163
-1.219971 -0.548715 1.207228
-1.225468 -0.585098 1.215164
-1.237854 -0.619351 1.224665
-1.256654 -0.650156 1.235366
-1.281144 -0.676331 1.246855
-1.310385 -0.69687 1.258693
-1.343251 -0.710982 1.270422
-1.37848 -0.718126 1.281593
-1.414718 -0.718027 1.291777
-1.450573 -0.71069 1.300581
-1.484667 -0.696395 1.307668
-1.515688 -0.675693 1.312766
-1.542447 -0.649379 1.315677
-1.563913 -0.618463 1.316292
-1.579262 -0.584135 1.314585
-1.587904 -0.547714 1.310623
-1.589508 -0.510598 1.304557
-1.584011 -0.474215 1.296622
-1.571624 -0.439962 1.287121
-1.552824 -0.409157 1.27642
-1.528334 -0.382982 1.26493
-1.499094 -0.362443 1.253093
-1.466228 -0.348331 1.241364
-1.409792 -0.532808 1.237943
-0.950428 0.053094 2.96861
-0.897468 0.05295 2.953728
-0.84507 0.042227 2.940861
-0.795245 0.021337 2.930504
-0.749909 -0.008918 2.923054
-0.710804 -0.047374 2.918799
-0.679433 -0.092554 2.917901
-0.657001 -0.142722 2.920395
-0.644371 -0.195949 2.926186
-0.642028 -0.250191 2.93505
-0.650061 -0.303362 2.946647
-0.668163 -0.353419 2.960532
-0.695637 -0.398439 2.97617
-0.731428 -0.436692 2.992961
-0.77416 -0.466707 3.01026
-0.822191 -0.487331 3.027402
-0.873676 -0.497771 3.043728
-0.926635 -0.497627 3.05861
-0.979034 -0.486904 3.071477
-1.028859 -0.466013 3.081834
-1.074195 -0.435759 3.089284
-1.1133 -0.397302 3.093539
-1.144671 -0.352122 3.094437
-1.167102 -0.301955 3.091943
-1.179732 -0.248727 3.086152
-1.182076 -0.194486 3.077288
-1.174042 -0.141315 3.065691
-1.15594 -0.091258 3.051806
-1.128466 -0.046238 3.036167
-1.092675 -0.007985 3.019376
-1.049943 0.02203 3.002077
-1.001912 0.042654 2.984936
0.378689 -1.928942 3.605474
0.803739 -1.942868 3.076447
0.431798 -1.914937 3.574652
0.76899 -1.875688 3.229843
0.837128 -1.995575 3.028854
0.626743 -1.471115 3.370813
0.522602 -1.172765 3.442588
0.391348 -1.67326 3.595431
1.107363 -1.948444 3.195055
0.851151 -2.264598 3.151067
0.540959 -2.250831 3.437945
0.865312 -1.815227 3.144611
0.48447 -3.006404 3.236903
0.975127 -2.941856 2.921507
1.557698 -2.532497 2.863014
1.271417 -1.077583 3.097935
1.432558 -1.550267 3.438698
0.521472 0.411867 3.325615
1.014361 0.928269 3.335508
2.742693 0.582202 2.521001
2.147018 -2.232765 2.797641
2.794972 -1.276008 2.299378
2.017722 -1.043337 2.842971
2.678205 1.464783 2.21152
1.533285 3.229365 -0.137548
2.082578 2.627873 1.769284
1.267339 3.012171 1.791144
1.129927 2.614334 2.565746
1.830541 -1.769274 3.280788
0.50637 -1.382825 3.697459
0.365062 -1.10872 3.804647
0.372214 -0.147762 3.356787
2.899665 -0.035028 1.912012
1.64932 -2.767948 1.959904
0.530787 -3.239444 2.238443
1.038614 -3.07423 2.142196
2.208808 -2.400071 1.80693
3.018775 -1.272053 1.530028
3.086733 -0.017738 1.355458
3.052274 0.541965 1.377506
2.970616 1.425588 1.328913
1.319428 3.230342 0.928907
2.221987 2.764964 1.052279
0.445759 -1.333001 3.03947
0.803739 -1.517687 2.828086
0.460315 -2.278481 3.039468
0.76899 -2.349888 2.828084
1.018004 -2.258144 2.722415
0.937097 -2.000872 3.104589
0.867655 -1.862292 3.156782
0.377804 -1.742065 3.703611
0.543196 -2.274918 3.631735
0.761545 -2.006203 3.246316
0.334869 -1.926631 3.385273
0.786137 -1.877616 3.026052
0.410372 -1.873155 3.400175
0.728175 -1.894461 3.141569
0.885172 -2.003409 2.939767
0.383086 -0.7837 3.409411
0.353642 -1.015064 3.612629
0.512218 -1.234928 3.69123
2.481969 2.067208 1.976516
1.080954 2.028897 3.049499
2.714781 2.114801 1.20008
2.998415 -0.588311 1.779257
3.053887 -0.598588 1.347192
2.361019 -0.298402 2.653363
2.174405 -0.070531 2.926682
1.251255 0.089068 3.119131
0.921074 -0.110948 3.102944
0.769166 -0.308381 3.020474
0.677356 -0.662397 2.887523
0.529854 -1.060176 3.224668
0.916563 -0.912174 3.061015
2.009629 1.000585 3.097864
1.764228 2.420125 2.404361
1.875544 1.9784 2.735109
1.736125 0.108378 3.117432
0.579872 -0.1837 3.086283
0.745596 0.283459 3.105499
1.108415 0.654714 3.098888
1.733316 0.743319 2.902031
2.242485 0.583774 2.628049
2.416355 -0.060419 2.406598
2.390241 -0.778952 2.225286
0.938174 -0.203559 2.723637
1.043177 0.09846 2.723516
1.295739 0.308723 2.639383
1.671531 0.288373 2.522234
1.934895 0.177494 2.410844
2.154227 -0.307825 2.318316
2.384951 -0.094876 2.578885
1.161905 0.346343 3.175696
0.676571 -0.20834 3.049728
0.840276 0.098399 3.112389
1.771121 0.415626 3.112679
2.173414 0.232487 2.862794
1.064621 -0.847111 2.882793
1.326918 -0.950472 2.876809
1.849744 -0.904602 2.714507
2.08886 -0.816672 2.970767
1.284216 -0.894683 3.140436
0.944873 -0.745637 3.12575
2.263829 -0.678059 2.204474
0.836306 -0.623551 2.65261
1.167304 -0.222666 2.596947
1.241344 -0.042249 2.54827
1.389832 0.056527 2.484615
1.562273 0.042302 2.426193
1.703333 -0.080407 2.391551
1.76975 -0.272641 2.391689
1.300915 -0.589351 2.597211
1.462504 -0.661656 2.548714
1.626353 -0.618857 2.485099
1.74104 -0.473368 2.426562
1.190732 -0.427212 2.615191
1.054517 -2.943604 1.286575
1.910104 -2.352587 0.611308
3.077792 0.560692 0.186847
2.998512 1.403444 0.124326
2.275012 2.75459 0.033252
2.690817 -1.216823 0.088972
0.692754 -1.142721 3.245861
1.267941 -1.152015 3.354529
2.633592 -1.558565 2.596772
1.975312 -1.195159 3.14833
2.720565 -1.810266 1.661711
1.085172 1.420478 3.249021
1.963426 1.514987 2.947467
0.990384 -1.61782 3.395386
1.360943 -1.956681 3.201634
0.915562 -2.616464 3.117831
0.512804 -2.687467 3.397772
0.798756 -0.789161 2.975572
1.39005 3.17161 -0.759437
0.857379 3.103425 -1.292109
1.91209 2.640881 -1.060836
1.158779 2.640881 -1.814149
2.748025 2.097267 0.075341
2.312665 2.038082 -1.292108
1.390052 2.038082 -2.214724
2.564477 1.336107 -1.437492
1.535436 1.336107 -2.466536
2.549154 0.580032 -1.39861
1.523883 0.582795 -2.446527
2.474683 -0.147322 -1.347079
1.476379 -0.164099 -2.364247
2.266353 -0.822528 -1.186841
1.328531 -0.854254 -2.102353
2.042298 -1.379272 -0.872215
1.207077 -1.41843 -1.737447
2.415821 -1.81986 0.43408
1.766326 -1.851599 -0.609518
0.999165 -1.861851 -1.286133
1.31207 -2.344092 -0.29053
0.704093 -2.3333 -0.771171
3.487786 -0.890041 -0.916801
3.488638 -0.783829 -0.614006
3.258303 -0.647034 -0.52707
3.230811 -0.780907 -0.890426
3.615377 -0.159768 -0.931128
3.581605 -0.280048 -0.624444
3.31775 -0.324899 -0.533745
3.335449 -0.175017 -0.902174
3.465858 0.371675 -0.523056
3.485976 0.113386 -0.363449
3.256601 -0.068688 -0.366856
3.21652 0.247696 -0.577592
3.120029 0.396288 0.069486
3.264791 0.129129 0.015529
3.115167 -0.058621 -0.124524
3.027343 0.065455 -0.01814
3.055846 -0.075445 0.47745
3.029418 -0.268328 0.31363
2.964662 -0.317405 0.066091
2.969898 -0.723352 0.487119
2.93645 -0.772109 0.324068
2.905216 -0.639539 0.072766
2.659064 -1.261321 0.311703
2.818924 -1.486457 0.088721
3.03208 -1.112009 0.063073
2.966364 -0.856883 -0.094123
3.164753 -1.362051 -0.507679
3.253265 -1.127752 -0.315905
3.107798 -0.86695 -0.336455
2.965891 -1.168004 -0.554903
2.642372 -0.504479 -0.129483
2.605587 -0.724732 -0.59819
2.744431 -0.195688 -0.642382
0.445759 -1.276611 2.223162
0.803739 -1.461298 2.194507
0.460315 -2.222091 2.223162
0.76899 -2.293498 2.194507
1.018004 -2.201754 2.180183
0.11536 -1.114777 3.838919
0.11536 -1.360807 3.773448
-0.275649 -1.382825 3.697459
-0.281497 -1.234928 3.69123
-0.134341 -1.10872 3.804647
-0.684841 -2.616464 3.117831
-0.744406 -2.941856 2.921507
-1.326978 -2.532497 2.863014
-1.130222 -1.956681 3.201634
-0.160627 -1.67326 3.595431
0.11536 -1.673413 3.663489
0.11536 -1.748088 3.743199
-0.147084 -1.742065 3.703611
-0.876643 -1.948444 3.195055
-0.706376 -2.000872 3.104589
-0.530824 -2.006203 3.246316
-0.62043 -2.264598 3.151067
-0.396022 -1.471115 3.370813
0.11536 -1.473786 3.483771
-0.573019 -1.942868 3.076447
-0.606407 -1.995575 3.028854
-0.636935 -1.862292 3.156782
-0.147969 -1.928942 3.605474
-0.201077 -1.914937 3.574652
0.11536 -2.043897 3.611903
0.11536 -2.350345 3.690227
-0.312476 -2.274918 3.631735
-0.538269 -1.875688 3.229843
-0.282084 -2.687467 3.397772
-0.25375 -3.006404 3.236903
0.11536 -2.76819 3.42018
0.11536 -3.088361 3.202211
0.11536 -3.279219 2.253351
-0.300066 -3.239444 2.238443
-0.807894 -3.07423 2.142196
-1.4186 -2.767948 1.959904
0.11536 -0.740798 3.504362
0.11536 -0.923514 3.633438
-0.122922 -1.015064 3.612629
-0.152366 -0.7837 3.409411
0.11536 1.005178 3.345148
0.11536 -0.08398 3.334882
-0.141494 -0.147762 3.356787
-0.290752 0.411867 3.325615
-1.037221 -1.152015 3.354529
-1.201837 -1.550267 3.438698
-1.599821 -1.769274 3.280788
-1.744591 -1.195159 3.14833
-1.978087 -2.400071 1.80693
-1.916297 -2.232765 2.797641
-2.564252 -1.276008 2.299378
-2.402871 -1.558565 2.596772
-2.489845 -1.810266 1.661711
-2.788055 -1.272053 1.530028
-2.668945 -0.035028 1.912012
-2.856013 -0.017738 1.355458
-2.821553 0.541965 1.377506
-2.511973 0.582202 2.521001
-1.787001 -1.043337 2.842971
-0.854452 1.420478 3.249021
-0.850234 2.028897 3.049499
0.11536 2.031219 3.150063
-0.78364 0.928269 3.335508
-2.739895 1.425588 1.328913
-2.447485 1.464783 2.21152
-1.302565 3.229365 -0.137548
-1.15933 3.17161 -0.759437
-0.626658 3.103425 -1.292109
0.11536 3.103425 -1.487082
0.11536 3.416532 -0.189667
-1.036618 3.012171 1.791144
-1.851858 2.627873 1.769284
-1.991267 2.764964 1.052279
-1.088707 3.230342 0.928907
-2.251249 2.067208 1.976516
-2.48406 2.114801 1.20008
-1.732705 1.514987 2.947467
-1.644824 1.9784 2.735109
-0.899206 2.614334 2.565746
-1.533508 2.420125 2.404361
0.11536 3.163917 1.818338
0.11536 2.70576 2.60929
-0.759664 -1.61782 3.395386
-0.291881 -1.172765 3.442588
-2.823167 -0.598588 1.347192
-2.767695 -0.588311 1.779257
-0.823797 -2.943604 1.286575
-1.679384 -2.352587 0.611308
-2.185101 -1.81986 0.43408
-2.825126 -0.075445 0.47745
-2.847072 0.560692 0.186847
-2.767792 1.403444 0.124326
0.11536 3.429488 0.856467
-2.044292 2.75459 0.033252
-2.517304 2.097267 0.075341
0.11536 -1.990371 3.642726
-0.104149 -1.926631 3.385273
-0.555416 -1.877616 3.026052
-0.179651 -1.873155 3.400175
0.11536 -1.974223 3.407687
-0.497454 -1.894461 3.141569
-0.654452 -2.003409 2.939767
-0.634592 -1.815227 3.144611
0.11536 -2.360408 3.507928
-0.310238 -2.250831 3.437945
0.11536 -1.412895 3.050995
-0.215039 -1.333001 3.03947
-0.573019 -1.517687 2.828086
-0.229594 -2.278481 3.039468
0.11536 -2.359545 3.050993
-0.538269 -2.349888 2.828084
-0.787283 -2.258144 2.722415
-2.15952 -0.778952 2.225286
-2.428344 -1.261321 0.311703
-2.739178 -0.723352 0.487119
-2.185635 -0.060419 2.406598
-2.011764 0.583774 2.628049
-1.778909 1.000585 3.097864
-1.502595 0.743319 2.902031
-0.877694 0.654714 3.098888
-0.514875 0.283459 3.105499
-0.349152 -0.1837 3.086283
-0.446635 -0.662397 2.887523
-0.299134 -1.060176 3.224668
-0.568036 -0.789161 2.975572
-1.619024 -0.904602 2.714507
-1.395633 -0.618857 2.485099
-1.231783 -0.661656 2.548714
-1.096197 -0.950472 2.876809
-2.033108 -0.678059 2.204474
-1.510319 -0.473368 2.426562
-2.130298 -0.298402 2.653363
-1.923506 -0.307825 2.318316
-1.943684 -0.070531 2.926682
-1.704175 0.177494 2.410844
-1.505405 0.108378 3.117432
-1.44081 0.288373 2.522234
-1.020534 0.089068 3.119131
-0.690353 -0.110948 3.102944
-0.812457 0.09846 2.723516
-1.065018 0.308723 2.639383
-0.538445 -0.308381 3.020474
-0.707454 -0.203559 2.723637
-0.605586 -0.623551 2.65261
-0.714152 -0.745637 3.12575
-0.8339 -0.847111 2.882793
-1.070195 -0.589351 2.597211
-0.44585 -0.20834 3.049728
-0.609555 0.098399 3.112389
-0.931185 0.346343 3.175696
-1.5404 0.415626 3.112679
-1.942693 0.232487 2.862794
-2.15423 -0.094876 2.578885
-0.960012 -0.427212 2.615191
-0.936583 -0.222666 2.596947
-1.010624 -0.042249 2.54827
-1.159111 0.056527 2.484615
-1.331552 0.042302 2.426193
-1.472613 -0.080407 2.391551
-1.53903 -0.272641 2.391689
-0.685843 -0.912174 3.061015
-1.040697 -1.077583 3.097935
-1.053496 -0.894683 3.140436
-1.858139 -0.816672 2.970767
-0.462033 -1.142721 3.245861
-1.68137 2.640881 -1.060836
-0.928059 2.640881 -1.814149
0.11536 2.640881 -2.089881
-2.081945 2.038082 -1.292108
-1.159331 2.038082 -2.214724
0.11536 2.038081 -2.552426
-2.333757 1.336107 -1.437492
-1.304715 1.336107 -2.466536
0.11536 1.336107 -2.843193
-2.318434 0.580032 -1.39861
-1.293163 0.582795 -2.446527
0.11536 0.582795 -2.942368
-2.796623 0.065455 -0.01814
-2.243963 -0.147322 -1.347079
-1.245658 -0.164099 -2.364247
0.11536 -0.170516 -2.843193
-2.51371 -0.195688 -0.642382
-2.374866 -0.724732 -0.59819
-2.035633 -0.822528 -1.186841
-1.09781 -0.854254 -2.102353
0.11536 -0.872491 -2.552426
-2.460096 -1.216823 0.088972
-1.811577 -1.379272 -0.872215
-0.976356 -1.41843 -1.737447
0.11536 -1.47529 -2.089882
-1.535606 -1.851599 -0.609518
-0.768444 -1.861851 -1.286133
0.11536 -1.937835 -1.487082
-1.08135 -2.344092 -0.29053
-0.473372 -2.3333 -0.771171
0.11536 -2.406058 -0.785108
0.11536 -3.086533 0.919063
-3.257065 -0.890041 -0.916801
-3.384657 -0.159768 -0.931128
-3.350885 -0.280048 -0.624444
-3.257917 -0.783829 -0.614006
-3.087029 -0.324899 -0.533745
-3.027582 -0.647034 -0.52707
-3.00009 -0.780907 -0.890426
-3.104728 -0.175017 -0.902174
-3.235137 0.371675 -0.523056
-3.255255 0.113386 -0.363449
-3.02588 -0.068688 -0.366856
-2.9858 0.247696 -0.577592
-2.889309 0.396288 0.069486
-3.03407 0.129129 0.015529
-2.884447 -0.058621 -0.124524
-2.798697 -0.268328 0.31363
-2.733942 -0.317405 0.066091
-2.70573 -0.772109 0.324068
-2.674495 -0.639539 0.072766
-2.588203 -1.486457 0.088721
-2.80136 -1.112009 0.063073
-2.735644 -0.856883 -0.094123
-2.934032 -1.362051 -0.507679
-3.022545 -1.127752 -0.315905
-2.877077 -0.86695 -0.336455
-2.73517 -1.168004 -0.554903
-2.411651 -0.504479 -0.129483
0.11536 -1.356506 2.224725
-0.215039 -1.276611 2.223162
-0.573019 -1.461298 2.194507
-0.229594 -2.222091 2.223162
0.11536 -2.303155 2.224724
-0.538269 -2.293498 2.194507
-0.787283 -2.201754 2.180183
0.11536 -1.873559 1.825293
