0.4375 0.164062 0.765625
-0.4375 0.164062 0.765625
0.5 0.09375 0.6875
-0.5 0.09375 0.6875
0.546875 0.054687 0.578125
-0.546875 0.054687 0.578125
0.351562 -0.023438 0.617188
-0.351562 -0.023438 0.617188
0.351562 0.03125 0.71875
-0.351562 0.03125 0.71875
0.351562 0.132812 0.78125
-0.351562 0.132812 0.78125
0.273438 0.164062 0.796875
-0.273438 0.164062 0.796875
0.203125 0.09375 0.742188
-0.203125 0.09375 0.742188
0.15625 0.054687 0.648438
-0.15625 0.054687 0.648438
0.078125 0.242187 0.65625
-0.078125 0.242187 0.65625
0.140625 0.242187 0.742188
-0.140625 0.242187 0.742188
0.242188 0.242187 0.796875
-0.242188 0.242187 0.796875
0.273438 0.328125 0.796875
-0.273438 0.328125 0.796875
0.203125 0.390625 0.742188
-0.203125 0.390625 0.742188
0.15625 0.4375 0.648438
-0.15625 0.4375 0.648438
0.351562 0.515625 0.617188
-0.351562 0.515625 0.617188
0.351562 0.453125 0.71875
-0.351562 0.453125 0.71875
0.351562 0.359375 0.78125
-0.351562 0.359375 0.78125
0.4375 0.328125 0.765625
-0.4375 0.328125 0.765625
0.5 0.390625 0.6875
-0.5 0.390625 0.6875
0.546875 0.4375 0.578125
-0.546875 0.4375 0.578125
0.625 0.242187 0.5625
-0.625 0.242187 0.5625
0.5625 0.242187 0.671875
-0.5625 0.242187 0.671875
0.46875 0.242187 0.757812
-0.46875 0.242187 0.757812
0.476562 0.242187 0.773438
-0.476562 0.242187 0.773438
0.445312 0.335937 0.78125
-0.445312 0.335937 0.78125
0.351562 0.375 0.804688
-0.351562 0.375 0.804688
0.265625 0.335937 0.820312
-0.265625 0.335937 0.820312
0.226562 0.242187 0.820312
-0.226562 0.242187 0.820312
0.265625 0.15625 0.820312
-0.265625 0.15625 0.820312
0.351562 0.242187 0.828125
-0.351562 0.242187 0.828125
0.351562 0.117187 0.804688
-0.351562 0.117187 0.804688
0.445312 0.15625 0.78125
-0.445312 0.15625 0.78125
0 0.429687 0.742188
0 0.351562 0.820312
0 -0.679688 0.734375
0 -0.320313 0.78125
0 -0.1875 0.796875
0 -0.773438 0.71875
0 0.40625 0.601562
0 0.570312 0.570312
0 0.898438 -0.546875
0 0.5625 -0.851562
0 0.070313 -0.828125
0 -0.382812 -0.351563
0.203125 -0.1875 0.5625
-0.203125 -0.1875 0.5625
0.3125 -0.4375 0.570312
-0.3125 -0.4375 0.570312
0.351562 -0.695312 0.570312
-0.351562 -0.695312 0.570312
0.367188 -0.890625 0.53125
-0.367188 -0.890625 0.53125
0.328125 -0.945312 0.523437
-0.328125 -0.945312 0.523437
0.179688 -0.96875 0.554687
-0.179688 -0.96875 0.554687
0 -0.984375 0.578125
0.4375 -0.140625 0.53125
-0.4375 -0.140625 0.53125
0.632812 -0.039063 0.539062
-0.632812 -0.039063 0.539062
0.828125 0.148437 0.445312
-0.828125 0.148437 0.445312
0.859375 0.429687 0.59375
-0.859375 0.429687 0.59375
0.710938 0.484375 0.625
-0.710938 0.484375 0.625
0.492188 0.601562 0.6875
-0.492188 0.601562 0.6875
0.320312 0.757812 0.734375
-0.320312 0.757812 0.734375
0.15625 0.71875 0.757813
-0.15625 0.71875 0.757813
0.0625 0.492187 0.75
-0.0625 0.492187 0.75
0.164062 0.414062 0.773438
-0.164062 0.414062 0.773438
0.125 0.304687 0.765625
-0.125 0.304687 0.765625
0.203125 0.09375 0.742188
-0.203125 0.09375 0.742188
0.375 0.015625 0.703125
-0.375 0.015625 0.703125
0.492188 0.0625 0.671875
-0.492188 0.0625 0.671875
0.625 0.1875 0.648438
-0.625 0.1875 0.648438
0.640625 0.296875 0.648438
-0.640625 0.296875 0.648438
0.601562 0.375 0.664062
-0.601562 0.375 0.664062
0.429688 0.4375 0.71875
-0.429688 0.4375 0.71875
0.25 0.46875 0.757812
-0.25 0.46875 0.757812
0 -0.765625 0.734375
0.109375 -0.71875 0.734375
-0.109375 -0.71875 0.734375
0.117188 -0.835938 0.710937
-0.117188 -0.835938 0.710937
0.0625 -0.882813 0.695312
-0.0625 -0.882813 0.695312
0 -0.890625 0.6875
0 -0.195313 0.75
0 -0.140625 0.742188
0.101562 -0.148438 0.742188
-0.101562 -0.148438 0.742188
0.125 -0.226563 0.75
-0.125 -0.226563 0.75
0.085938 -0.289063 0.742188
-0.085938 -0.289063 0.742188
0.398438 -0.046875 0.671875
-0.398438 -0.046875 0.671875
0.617188 0.054687 0.625
-0.617188 0.054687 0.625
0.726562 0.203125 0.601562
-0.726562 0.203125 0.601562
0.742188 0.375 0.65625
-0.742188 0.375 0.65625
0.6875 0.414062 0.726562
-0.6875 0.414062 0.726562
0.4375 0.546875 0.796875
-0.4375 0.546875 0.796875
0.3125 0.640625 0.835938
-0.3125 0.640625 0.835938
0.203125 0.617187 0.851562
-0.203125 0.617187 0.851562
0.101562 0.429687 0.84375
-0.101562 0.429687 0.84375
0.125 -0.101563 0.8125
-0.125 -0.101563 0.8125
0.210938 -0.445313 0.710938
-0.210938 -0.445313 0.710938
0.25 -0.703125 0.6875
-0.25 -0.703125 0.6875
0.265625 -0.820312 0.664062
-0.265625 -0.820312 0.664062
0.234375 -0.914062 0.632812
-0.234375 -0.914062 0.632812
0.164062 -0.929688 0.632812
-0.164062 -0.929688 0.632812
0 -0.945312 0.640625
0 0.046875 0.726562
0 0.210937 0.765625
0.328125 0.476562 0.742188
-0.328125 0.476562 0.742188
0.164062 0.140625 0.75
-0.164062 0.140625 0.75
0.132812 0.210937 0.757812
-0.132812 0.210937 0.757812
0.117188 -0.6875 0.734375
-0.117188 -0.6875 0.734375
0.078125 -0.445313 0.75
-0.078125 -0.445313 0.75
0 -0.445313 0.75
0 -0.328125 0.742188
0.09375 -0.273438 0.78125
-0.09375 -0.273438 0.78125
0.132812 -0.226563 0.796875
-0.132812 -0.226563 0.796875
0.109375 -0.132813 0.78125
-0.109375 -0.132813 0.78125
0.039062 -0.125 0.78125
-0.039062 -0.125 0.78125
0 -0.203125 0.828125
0.046875 -0.148438 0.8125
-0.046875 -0.148438 0.8125
0.09375 -0.15625 0.8125
-0.09375 -0.15625 0.8125
0.109375 -0.226563 0.828125
-0.109375 -0.226563 0.828125
0.078125 -0.25 0.804688
-0.078125 -0.25 0.804688
0 -0.289063 0.804688
0.257812 -0.3125 0.554688
-0.257812 -0.3125 0.554688
0.164062 -0.242188 0.710938
-0.164062 -0.242188 0.710938
0.179688 -0.3125 0.710938
-0.179688 -0.3125 0.710938
0.234375 -0.25 0.554688
-0.234375 -0.25 0.554688
0 -0.875 0.6875
0.046875 -0.867188 0.6875
-0.046875 -0.867188 0.6875
0.09375 -0.820313 0.710937
-0.09375 -0.820313 0.710937
0.09375 -0.742188 0.726562
-0.09375 -0.742188 0.726562
0 -0.78125 0.65625
0.09375 -0.75 0.664062
-0.09375 -0.75 0.664062
0.09375 -0.8125 0.640625
-0.09375 -0.8125 0.640625
0.046875 -0.851562 0.632812
-0.046875 -0.851562 0.632812
0 -0.859375 0.632812
0.171875 0.21875 0.78125
-0.171875 0.21875 0.78125
0.1875 0.15625 0.773438
-0.1875 0.15625 0.773438
0.335938 0.429687 0.757812
-0.335938 0.429687 0.757812
0.273438 0.421875 0.773438
-0.273438 0.421875 0.773438
0.421875 0.398437 0.773438
-0.421875 0.398437 0.773438
0.5625 0.351562 0.695312
-0.5625 0.351562 0.695312
0.585938 0.289062 0.6875
-0.585938 0.289062 0.6875
0.578125 0.195312 0.679688
-0.578125 0.195312 0.679688
0.476562 0.101562 0.71875
-0.476562 0.101562 0.71875
0.375 0.0625 0.742188
-0.375 0.0625 0.742188
0.226562 0.109375 0.78125
-0.226562 0.109375 0.78125
0.179688 0.296875 0.78125
-0.179688 0.296875 0.78125
0.210938 0.375 0.78125
-0.210938 0.375 0.78125
0.234375 0.359375 0.757812
-0.234375 0.359375 0.757812
0.195312 0.296875 0.757812
-0.195312 0.296875 0.757812
0.242188 0.125 0.757812
-0.242188 0.125 0.757812
0.375 0.085937 0.726562
-0.375 0.085937 0.726562
0.460938 0.117187 0.703125
-0.460938 0.117187 0.703125
0.546875 0.210937 0.671875
-0.546875 0.210937 0.671875
0.554688 0.28125 0.671875
-0.554688 0.28125 0.671875
0.53125 0.335937 0.679688
-0.53125 0.335937 0.679688
0.414062 0.390625 0.75
-0.414062 0.390625 0.75
0.28125 0.398437 0.765625
-0.28125 0.398437 0.765625
0.335938 0.40625 0.75
-0.335938 0.40625 0.75
0.203125 0.171875 0.75
-0.203125 0.171875 0.75
0.195312 0.226562 0.75
-0.195312 0.226562 0.75
0.109375 0.460937 0.609375
-0.109375 0.460937 0.609375
0.195312 0.664062 0.617188
-0.195312 0.664062 0.617188
0.335938 0.6875 0.59375
-0.335938 0.6875 0.59375
0.484375 0.554688 0.554688
-0.484375 0.554688 0.554688
0.679688 0.453125 0.492188
-0.679688 0.453125 0.492188
0.796875 0.40625 0.460938
-0.796875 0.40625 0.460938
0.773438 0.164062 0.375
-0.773438 0.164062 0.375
0.601562 0 0.414062
-0.601562 0 0.414062
0.4375 -0.09375 0.46875
-0.4375 -0.09375 0.46875
0 0.898438 0.289063
0 0.984375 -0.078125
0 -0.195312 -0.671875
0 -0.460938 0.1875
0 -0.976562 0.460937
0 -0.804688 0.34375
0 -0.570312 0.320312
0 -0.484375 0.28125
0.851562 0.234375 0.054688
-0.851562 0.234375 0.054688
0.859375 0.320312 -0.046875
-0.859375 0.320312 -0.046875
0.773438 0.265625 -0.4375
-0.773438 0.265625 -0.4375
0.460938 0.4375 -0.703125
-0.460938 0.4375 -0.703125
0.734375 -0.046875 0.070312
-0.734375 -0.046875 0.070312
0.59375 -0.125 -0.164062
-0.59375 -0.125 -0.164062
0.640625 -0.007812 -0.429688
-0.640625 -0.007812 -0.429688
0.335938 0.054688 -0.664062
-0.335938 0.054688 -0.664062
0.234375 -0.351563 0.40625
-0.234375 -0.351563 0.40625
0.179688 -0.414062 0.257812
-0.179688 -0.414062 0.257812
0.289062 -0.710938 0.382812
-0.289062 -0.710938 0.382812
0.25 -0.5 0.390625
-0.25 -0.5 0.390625
0.328125 -0.914062 0.398437
-0.328125 -0.914062 0.398437
0.140625 -0.757812 0.367187
-0.140625 -0.757812 0.367187
0.125 -0.539062 0.359375
-0.125 -0.539062 0.359375
0.164062 -0.945312 0.4375
-0.164062 -0.945312 0.4375
0.21875 -0.28125 0.429688
-0.21875 -0.28125 0.429688
0.210938 -0.226563 0.46875
-0.210938 -0.226563 0.46875
0.203125 -0.171875 0.5
-0.203125 -0.171875 0.5
0.210938 -0.390625 0.164062
-0.210938 -0.390625 0.164062
0.296875 -0.3125 -0.265625
-0.296875 -0.3125 -0.265625
0.34375 -0.148437 -0.539062
-0.34375 -0.148437 -0.539062
0.453125 0.867188 -0.382812
-0.453125 0.867188 -0.382812
0.453125 0.929688 -0.070312
-0.453125 0.929688 -0.070312
0.453125 0.851562 0.234375
-0.453125 0.851562 0.234375
0.460938 0.523438 0.429688
-0.460938 0.523438 0.429688
0.726562 0.40625 0.335938
-0.726562 0.40625 0.335938
0.632812 0.453125 0.28125
-0.632812 0.453125 0.28125
0.640625 0.703125 0.054688
-0.640625 0.703125 0.054688
0.796875 0.5625 0.125
-0.796875 0.5625 0.125
0.796875 0.617188 -0.117187
-0.796875 0.617188 -0.117187
0.640625 0.75 -0.195312
-0.640625 0.75 -0.195312
0.640625 0.679688 -0.445312
-0.640625 0.679688 -0.445312
0.796875 0.539062 -0.359375
-0.796875 0.539062 -0.359375
0.617188 0.328125 -0.585938
-0.617188 0.328125 -0.585938
0.484375 0.023438 -0.546875
-0.484375 0.023438 -0.546875
0.820312 0.328125 -0.203125
-0.820312 0.328125 -0.203125
0.40625 -0.171875 0.148437
-0.40625 -0.171875 0.148437
0.429688 -0.195312 -0.210938
-0.429688 -0.195312 -0.210938
0.890625 0.40625 -0.234375
-0.890625 0.40625 -0.234375
0.773438 -0.140625 -0.125
-0.773438 -0.140625 -0.125
1.039062 -0.101562 -0.328125
-1.039062 -0.101562 -0.328125
1.28125 0.054688 -0.429688
-1.28125 0.054688 -0.429688
1.351562 0.320313 -0.421875
-1.351562 0.320313 -0.421875
1.234375 0.507812 -0.421875
-1.234375 0.507812 -0.421875
1.023438 0.476562 -0.3125
-1.023438 0.476562 -0.3125
1.015625 0.414062 -0.289062
-1.015625 0.414062 -0.289062
1.1875 0.4375 -0.390625
-1.1875 0.4375 -0.390625
1.265625 0.289063 -0.40625
-1.265625 0.289063 -0.40625
1.210938 0.078125 -0.40625
-1.210938 0.078125 -0.40625
1.03125 -0.039062 -0.304688
-1.03125 -0.039062 -0.304688
0.828125 -0.070312 -0.132812
-0.828125 -0.070312 -0.132812
0.921875 0.359375 -0.21875
-0.921875 0.359375 -0.21875
0.945312 0.304688 -0.289062
-0.945312 0.304688 -0.289062
0.882812 -0.023437 -0.210938
-0.882812 -0.023437 -0.210938
1.039062 0 -0.367188
-1.039062 0 -0.367188
1.1875 0.09375 -0.445312
-1.1875 0.09375 -0.445312
1.234375 0.25 -0.445312
-1.234375 0.25 -0.445312
1.171875 0.359375 -0.4375
-1.171875 0.359375 -0.4375
1.023438 0.34375 -0.359375
-1.023438 0.34375 -0.359375
0.84375 0.289062 -0.210937
-0.84375 0.289062 -0.210937
0.835938 0.171875 -0.273438
-0.835938 0.171875 -0.273438
0.757812 0.09375 -0.273438
-0.757812 0.09375 -0.273438
0.820312 0.085938 -0.273438
-0.820312 0.085938 -0.273438
0.84375 0.015625 -0.273438
-0.84375 0.015625 -0.273438
0.8125 -0.015625 -0.273438
-0.8125 -0.015625 -0.273438
0.726562 0 -0.070312
-0.726562 0 -0.070312
0.71875 -0.023437 -0.171875
-0.71875 -0.023437 -0.171875
0.71875 0.039063 -0.1875
-0.71875 0.039063 -0.1875
0.796875 0.203125 -0.210937
-0.796875 0.203125 -0.210937
0.890625 0.242188 -0.265625
-0.890625 0.242188 -0.265625
0.890625 0.234375 -0.320312
-0.890625 0.234375 -0.320312
0.8125 -0.015625 -0.320312
-0.8125 -0.015625 -0.320312
0.851562 0.015625 -0.320312
-0.851562 0.015625 -0.320312
0.828125 0.078125 -0.320312
-0.828125 0.078125 -0.320312
0.765625 0.09375 -0.320312
-0.765625 0.09375 -0.320312
0.84375 0.171875 -0.320312
-0.84375 0.171875 -0.320312
1.039062 0.328125 -0.414062
-1.039062 0.328125 -0.414062
1.1875 0.34375 -0.484375
-1.1875 0.34375 -0.484375
1.257812 0.242188 -0.492188
-1.257812 0.242188 -0.492188
1.210938 0.085938 -0.484375
-1.210938 0.085938 -0.484375
1.046875 0 -0.421875
-1.046875 0 -0.421875
0.882812 -0.015625 -0.265625
-0.882812 -0.015625 -0.265625
0.953125 0.289063 -0.34375
-0.953125 0.289063 -0.34375
0.890625 0.109375 -0.328125
-0.890625 0.109375 -0.328125
0.9375 0.0625 -0.335938
-0.9375 0.0625 -0.335938
1 0.125 -0.367188
-1 0.125 -0.367188
0.960938 0.171875 -0.351562
-0.960938 0.171875 -0.351562
1.015625 0.234375 -0.375
-1.015625 0.234375 -0.375
1.054688 0.1875 -0.382812
-1.054688 0.1875 -0.382812
1.109375 0.210938 -0.390625
-1.109375 0.210938 -0.390625
1.085938 0.273438 -0.390625
-1.085938 0.273438 -0.390625
1.023438 0.4375 -0.484375
-1.023438 0.4375 -0.484375
1.25 0.46875 -0.546875
-1.25 0.46875 -0.546875
1.367188 0.296875 -0.5
-1.367188 0.296875 -0.5
1.3125 0.054688 -0.53125
-1.3125 0.054688 -0.53125
1.039062 -0.085937 -0.492188
-1.039062 -0.085937 -0.492188
0.789062 -0.125 -0.328125
-0.789062 -0.125 -0.328125
0.859375 0.382813 -0.382812
-0.859375 0.382813 -0.382812
